-1855.578554 -1511.069271 437.907428
-1857.161825 -1511.288140 439.109656
-1858.745095 -1511.507008 440.311883
-1860.328366 -1511.725877 441.514111
-1861.911636 -1511.944745 442.716339
-1863.494906 -1512.163614 443.918567
-1865.078177 -1512.382483 445.120794
-1866.661447 -1512.601351 446.323022
-1868.244717 -1512.820220 447.525250
-1869.827988 -1513.039088 448.727478
-1871.411258 -1513.257957 449.929705
-1872.994528 -1513.476826 451.131933
-1874.577799 -1513.695694 452.334161
-1876.161069 -1513.914563 453.536388
-1877.744339 -1514.133431 454.738616
-1879.327610 -1514.352300 455.940844
-1880.910880 -1514.571168 457.143072
-1882.494150 -1514.790037 458.345299
-1884.077421 -1515.008906 459.547527
-1885.660691 -1515.227774 460.749755
-1887.243962 -1515.446643 461.951983
-1888.827232 -1515.665511 463.154210
-1890.410502 -1515.884380 464.356438
-1891.993773 -1516.103249 465.558666
-1893.577043 -1516.322117 466.760894
-1895.160313 -1516.540986 467.963121
-1896.743584 -1516.759854 469.165349
-1898.326854 -1516.978723 470.367577
-1899.910124 -1517.197591 471.569805
-1901.493395 -1517.416460 472.772032
-1903.076665 -1517.635329 473.974260
-1904.659935 -1517.854197 475.176488
-1906.243206 -1518.073066 476.378715
-1907.826476 -1518.291934 477.580943
-1909.409746 -1518.510803 478.783171
-1910.993017 -1518.729672 479.985399
-1912.576287 -1518.948540 481.187626
-1914.159558 -1519.167409 482.389854
-1915.742828 -1519.386277 483.592082
-1917.326098 -1519.605146 484.794310
-1920.000000 -1519.974782 486.824689
-1920.044252 -1519.325582 488.715874
-1920.088504 -1518.676382 490.607059
-1920.132756 -1518.027182 492.498244
-1920.177008 -1517.377982 494.389429
-1920.221260 -1516.728782 496.280614
-1920.265512 -1516.079582 498.171799
-1920.309764 -1515.430382 500.062985
-1920.354016 -1514.781182 501.954170
-1920.398268 -1514.131982 503.845355
-1920.442520 -1513.482782 505.736540
-1920.486772 -1512.833582 507.627725
-1920.531024 -1512.184382 509.518910
-1920.575276 -1511.535182 511.410095
-1920.619528 -1510.885982 513.301280
-1920.663780 -1510.236782 515.192466
-1920.708032 -1509.587582 517.083651
-1920.752284 -1508.938382 518.974836
-1920.796536 -1508.289182 520.866021
-1920.840788 -1507.639982 522.757206
-1920.885039 -1506.990782 524.648391
-1920.929291 -1506.341582 526.539576
-1920.973543 -1505.692383 528.430761
-1921.017795 -1505.043183 530.321947
-1921.062047 -1504.393983 532.213132
-1921.106299 -1503.744783 534.104317
-1921.150551 -1503.095583 535.995502
-1921.194803 -1502.446383 537.886687
-1921.239055 -1501.797183 539.777872
-1921.283307 -1501.147983 541.669057
-1921.327559 -1500.498783 543.560242
-1921.371811 -1499.849583 545.451428
-1921.416063 -1499.200383 547.342613
-1921.460315 -1498.551183 549.233798
-1921.504567 -1497.901983 551.124983
-1921.548819 -1497.252783 553.016168
-1921.593071 -1496.603583 554.907353
-1921.637323 -1495.954383 556.798538
-1921.681575 -1495.305183 558.689723
-1921.725827 -1494.655983 560.580909
-1921.770079 -1494.006783 562.472094
-1921.814331 -1493.357583 564.363279
-1921.858583 -1492.708383 566.254464
-1921.902835 -1492.059184 568.145649
-1921.947087 -1491.409984 570.036834
-1921.991339 -1490.760784 571.928019
-1922.035591 -1490.111584 573.819204
-1922.079843 -1489.462384 575.710390
-1922.124095 -1488.813184 577.601575
-1922.168347 -1488.163984 579.492760
-1922.212599 -1487.514784 581.383945
-1922.256851 -1486.865584 583.275130
-1922.301103 -1486.216384 585.166315
-1922.345355 -1485.567184 587.057500
-1922.389607 -1484.917984 588.948685
-1922.433859 -1484.268784 590.839871
-1922.478111 -1483.619584 592.731056
-1922.522363 -1482.970384 594.622241
-1922.566615 -1482.321184 596.513426
-1922.610867 -1481.671984 598.404611
-1922.655118 -1481.022784 600.295796
-1922.699370 -1480.373584 602.186981
-1922.743622 -1479.724384 604.078166
-1922.787874 -1479.075184 605.969352
-1922.832126 -1478.425984 607.860537
-1922.876378 -1477.776785 609.751722
-1922.920630 -1477.127585 611.642907
-1922.964882 -1476.478385 613.534092
-1923.009134 -1475.829185 615.425277
-1923.053386 -1475.179985 617.316462
-1923.097638 -1474.530785 619.207648
-1923.141890 -1473.881585 621.098833
-1923.186142 -1473.232385 622.990018
-1923.230394 -1472.583185 624.881203
-1923.274646 -1471.933985 626.772388
-1923.318898 -1471.284785 628.663573
-1923.363150 -1470.635585 630.554758
-1923.407402 -1469.986385 632.445943
-1923.451654 -1469.337185 634.337129
-1923.495906 -1468.687985 636.228314
-1923.540158 -1468.038785 638.119499
-1923.584410 -1467.389585 640.010684
-1923.628662 -1466.740385 641.901869
-1923.672914 -1466.091185 643.793054
-1923.717166 -1465.441985 645.684239
-1923.761418 -1464.792785 647.575424
-1923.805670 -1464.143585 649.466610
-1923.849922 -1463.494386 651.357795
-1923.894174 -1462.845186 653.248980
-1923.938426 -1462.195986 655.140165
-1923.982678 -1461.546786 657.031350
-1924.026930 -1460.897586 658.922535
-1924.071182 -1460.248386 660.813720
-1924.115434 -1459.599186 662.704905
-1924.159686 -1458.949986 664.596091
-1924.203938 -1458.300786 666.487276
-1924.248190 -1457.651586 668.378461
-1924.292442 -1457.002386 670.269646
-1924.336694 -1456.353186 672.160831
-1924.380945 -1455.703986 674.052016
-1924.425197 -1455.054786 675.943201
-1924.469449 -1454.405586 677.834386
-1924.513701 -1453.756386 679.725572
-1924.557953 -1453.107186 681.616757
-1924.602205 -1452.457986 683.507942
-1924.646457 -1451.808786 685.399127
-1924.690709 -1451.159586 687.290312
-1924.734961 -1450.510386 689.181497
-1924.779213 -1449.861186 691.072682
-1924.823465 -1449.211987 692.963867
-1924.867717 -1448.562787 694.855053
-1924.911969 -1447.913587 696.746238
-1924.956221 -1447.264387 698.637423
-1925.000473 -1446.615187 700.528608
-1925.044725 -1445.965987 702.419793
-1925.088977 -1445.316787 704.310978
-1925.133229 -1444.667587 706.202163
-1925.177481 -1444.018387 708.093348
-1925.221733 -1443.369187 709.984534
-1925.265985 -1442.719987 711.875719
-1925.310237 -1442.070787 713.766904
-1925.354489 -1441.421587 715.658089
-1925.398741 -1440.772387 717.549274
-1925.442993 -1440.123187 719.440459
-1925.487245 -1439.473987 721.331644
-1925.531497 -1438.824787 723.222829
-1925.575749 -1438.175587 725.114015
-1925.620001 -1437.526387 727.005200
-1925.664253 -1436.877187 728.896385
-1925.708505 -1436.227987 730.787570
-1925.752757 -1435.578787 732.678755
-1925.797009 -1434.929588 734.569940
-1925.841261 -1434.280388 736.461125
-1925.885513 -1433.631188 738.352310
-1925.929765 -1432.981988 740.243496
-1925.974017 -1432.332788 742.134681
-1926.018269 -1431.683588 744.025866
-1926.062521 -1431.034388 745.917051
-1926.106773 -1430.385188 747.808236
-1926.151024 -1429.735988 749.699421
-1926.195276 -1429.086788 751.590606
-1926.239528 -1428.437588 753.481791
-1926.283780 -1427.788388 755.372977
-1926.328032 -1427.139188 757.264162
-1926.372284 -1426.489988 759.155347
-1926.416536 -1425.840788 761.046532
-1926.460788 -1425.191588 762.937717
-1926.505040 -1424.542388 764.828902
-1926.549292 -1423.893188 766.720087
-1926.593544 -1423.243988 768.611272
-1926.637796 -1422.594788 770.502458
-1926.682048 -1421.945588 772.393643
-1926.726300 -1421.296389 774.284828
-1926.770552 -1420.647189 776.176013
-1926.814804 -1419.997989 778.067198
-1926.859056 -1419.348789 779.958383
-1926.903308 -1418.699589 781.849568
-1926.947560 -1418.050389 783.740754
-1926.991812 -1417.401189 785.631939
-1927.036064 -1416.751989 787.523124
-1927.080316 -1416.102789 789.414309
-1927.124568 -1415.453589 791.305494
-1927.168820 -1414.804389 793.196679
-1927.213072 -1414.155189 795.087864
-1927.257324 -1413.505989 796.979049
-1927.301576 -1412.856789 798.870235
-1927.345828 -1412.207589 800.761420
-1927.390080 -1411.558389 802.652605
-1927.434332 -1410.909189 804.543790
-1927.478584 -1410.259989 806.434975
-1927.522836 -1409.610789 808.326160
-1927.567088 -1408.961589 810.217345
-1927.611340 -1408.312389 812.108530
-1927.655592 -1407.663189 813.999716
-1927.699844 -1407.013990 815.890901
-1927.744096 -1406.364790 817.782086
-1927.788348 -1405.715590 819.673271
-1927.832600 -1405.066390 821.564456
-1927.876851 -1404.417190 823.455641
-1927.921103 -1403.767990 825.346826
-1927.965355 -1403.118790 827.238011
-1928.009607 -1402.469590 829.129197
-1928.053859 -1401.820390 831.020382
-1928.098111 -1401.171190 832.911567
-1928.142363 -1400.521990 834.802752
-1928.186615 -1399.872790 836.693937
-1928.230867 -1399.223590 838.585122
-1928.275119 -1398.574390 840.476307
-1928.319371 -1397.925190 842.367492
-1928.363623 -1397.275990 844.258678
-1928.407875 -1396.626790 846.149863
-1928.452127 -1395.977590 848.041048
-1928.496379 -1395.328390 849.932233
-1928.540631 -1394.679190 851.823418
-1928.584883 -1394.029990 853.714603
-1928.629135 -1393.380790 855.605788
-1928.673387 -1392.731591 857.496973
-1928.717639 -1392.082391 859.388159
-1928.761891 -1391.433191 861.279344
-1928.806143 -1390.783991 863.170529
-1928.850395 -1390.134791 865.061714
-1928.894647 -1389.485591 866.952899
-1928.938899 -1388.836391 868.844084
-1928.983151 -1388.187191 870.735269
-1929.027403 -1387.537991 872.626454
-1929.071655 -1386.888791 874.517640
-1929.115907 -1386.239591 876.408825
-1929.160159 -1385.590391 878.300010
-1929.204411 -1384.941191 880.191195
-1929.248663 -1384.291991 882.082380
-1929.292915 -1383.642791 883.973565
-1929.337167 -1382.993591 885.864750
-1929.381419 -1382.344391 887.755935
-1929.425671 -1381.695191 889.647121
-1929.469923 -1381.045991 891.538306
-1929.514175 -1380.396791 893.429491
-1929.558427 -1379.747591 895.320676
-1929.602678 -1379.098391 897.211861
-1929.646930 -1378.449192 899.103046
-1929.691182 -1377.799992 900.994231
-1929.735434 -1377.150792 902.885416
-1929.779686 -1376.501592 904.776602
-1929.823938 -1375.852392 906.667787
-1929.868190 -1375.203192 908.558972
-1929.912442 -1374.553992 910.450157
-1929.956694 -1373.904792 912.341342
-1930.000946 -1373.255592 914.232527
-1930.045198 -1372.606392 916.123712
-1930.089450 -1371.957192 918.014897
-1930.133702 -1371.307992 919.906083
-1930.177954 -1370.658792 921.797268
-1930.222206 -1370.009592 923.688453
-1930.266458 -1369.360392 925.579638
-1930.310710 -1368.711192 927.470823
-1930.354962 -1368.061992 929.362008
-1930.399214 -1367.412792 931.253193
-1930.443466 -1366.763592 933.144378
-1930.487718 -1366.114392 935.035564
-1930.531970 -1365.465192 936.926749
-1930.576222 -1364.815993 938.817934
-1930.620474 -1364.166793 940.709119
-1930.664726 -1363.517593 942.600304
-1930.708978 -1362.868393 944.491489
-1930.753230 -1362.219193 946.382674
-1930.797482 -1361.569993 948.273860
-1930.841734 -1360.920793 950.165045
-1930.885986 -1360.271593 952.056230
-1930.930238 -1359.622393 953.947415
-1930.974490 -1358.973193 955.838600
-1931.018742 -1358.323993 957.729785
-1931.062994 -1357.674793 959.620970
-1931.107246 -1357.025593 961.512155
-1931.151498 -1356.376393 963.403341
-1931.195750 -1355.727193 965.294526
-1931.240002 -1355.077993 967.185711
-1931.284254 -1354.428793 969.076896
-1931.328506 -1353.779593 970.968081
-1931.372757 -1353.130393 972.859266
-1931.417009 -1352.481193 974.750451
-1931.461261 -1351.831993 976.641636
-1931.505513 -1351.182793 978.532822
-1931.549765 -1350.533594 980.424007
-1931.594017 -1349.884394 982.315192
-1931.638269 -1349.235194 984.206377
-1931.682521 -1348.585994 986.097562
-1931.726773 -1347.936794 987.988747
-1931.771025 -1347.287594 989.879932
-1931.815277 -1346.638394 991.771117
-1931.859529 -1345.989194 993.662303
-1931.903781 -1345.339994 995.553488
-1931.948033 -1344.690794 997.444673
-1931.992285 -1344.041594 999.335858
-1932.036537 -1343.392394 1001.227043
-1932.080789 -1342.743194 1003.118228
-1932.125041 -1342.093994 1005.009413
-1932.169293 -1341.444794 1006.900598
-1932.213545 -1340.795594 1008.791784
-1932.257797 -1340.146394 1010.682969
-1932.302049 -1339.497194 1012.574154
-1932.346301 -1338.847994 1014.465339
-1932.390553 -1338.198794 1016.356524
-1932.434805 -1337.549594 1018.247709
-1932.479057 -1336.900394 1020.138894
-1932.523309 -1336.251195 1022.030079
-1932.567561 -1335.601995 1023.921265
-1932.611813 -1334.952795 1025.812450
-1932.656065 -1334.303595 1027.703635
-1932.700317 -1333.654395 1029.594820
-1932.744569 -1333.005195 1031.486005
-1932.788821 -1332.355995 1033.377190
-1932.833073 -1331.706795 1035.268375
-1932.877325 -1331.057595 1037.159560
-1932.921577 -1330.408395 1039.050746
-1932.965829 -1329.759195 1040.941931
-1933.010081 -1329.109995 1042.833116
-1933.054333 -1328.460795 1044.724301
-1933.098584 -1327.811595 1046.615486
-1933.142836 -1327.162395 1048.506671
-1933.187088 -1326.513195 1050.397856
-1933.231340 -1325.863995 1052.289041
-1933.275592 -1325.214795 1054.180227
-1933.319844 -1324.565595 1056.071412
-1933.364096 -1323.916395 1057.962597
-1933.408348 -1323.267195 1059.853782
-1933.452600 -1322.617995 1061.744967
-1933.496852 -1321.968796 1063.636152
-1933.541104 -1321.319596 1065.527337
-1933.585356 -1320.670396 1067.418522
-1933.629608 -1320.021196 1069.309708
-1933.673860 -1319.371996 1071.200893
-1933.718112 -1318.722796 1073.092078
-1933.762364 -1318.073596 1074.983263
-1933.806616 -1317.424396 1076.874448
-1933.850868 -1316.775196 1078.765633
-1933.895120 -1316.125996 1080.656818
-1933.939372 -1315.476796 1082.548003
-1933.983624 -1314.827596 1084.439189
-1934.027876 -1314.178396 1086.330374
-1934.072128 -1313.529196 1088.221559
-1934.116380 -1312.879996 1090.112744
-1934.160632 -1312.230796 1092.003929
-1934.204884 -1311.581596 1093.895114
-1934.249136 -1310.932396 1095.786299
-1934.293388 -1310.283196 1097.677484
-1934.337640 -1309.633996 1099.568670
-1934.381892 -1308.984796 1101.459855
-1934.426144 -1308.335597 1103.351040
-1934.470396 -1307.686397 1105.242225
-1934.514648 -1307.037197 1107.133410
-1934.558900 -1306.387997 1109.024595
-1934.603152 -1305.738797 1110.915780
-1934.647404 -1305.089597 1112.806966
-1934.691656 -1304.440397 1114.698151
-1934.735908 -1303.791197 1116.589336
-1934.780160 -1303.141997 1118.480521
-1934.824412 -1302.492797 1120.371706
-1934.868663 -1301.843597 1122.262891
-1934.912915 -1301.194397 1124.154076
-1934.957167 -1300.545197 1126.045261
-1935.001419 -1299.895997 1127.936447
-1935.045671 -1299.246797 1129.827632
-1935.089923 -1298.597597 1131.718817
-1935.134175 -1297.948397 1133.610002
-1935.178427 -1297.299197 1135.501187
-1935.222679 -1296.649997 1137.392372
-1935.266931 -1296.000797 1139.283557
-1935.311183 -1295.351597 1141.174742
-1935.355435 -1294.702397 1143.065928
-1935.399687 -1294.053198 1144.957113
-1935.443939 -1293.403998 1146.848298
-1935.488191 -1292.754798 1148.739483
-1935.532443 -1292.105598 1150.630668
-1935.576695 -1291.456398 1152.521853
-1935.620947 -1290.807198 1154.413038
-1935.665199 -1290.157998 1156.304223
-1935.709451 -1289.508798 1158.195409
-1935.753703 -1288.859598 1160.086594
-1935.797955 -1288.210398 1161.977779
-1935.842207 -1287.561198 1163.868964
-1935.886459 -1286.911998 1165.760149
-1935.930711 -1286.262798 1167.651334
-1936.000000 -1285.246290 1170.612526
-1936.069077 -1285.246290 1168.613719
-1936.138155 -1285.246290 1166.614912
-1936.207232 -1285.246290 1164.616105
-1936.276309 -1285.246290 1162.617299
-1936.345386 -1285.246290 1160.618492
-1936.414464 -1285.246290 1158.619685
-1936.483541 -1285.246290 1156.620878
-1936.552618 -1285.246290 1154.622072
-1936.621695 -1285.246290 1152.623265
-1936.690773 -1285.246290 1150.624458
-1936.759850 -1285.246290 1148.625652
-1936.828927 -1285.246290 1146.626845
-1936.898004 -1285.246290 1144.628038
-1936.967082 -1285.246290 1142.629231
-1937.036159 -1285.246290 1140.630425
-1937.105236 -1285.246290 1138.631618
-1937.174313 -1285.246290 1136.632811
-1937.243391 -1285.246290 1134.634004
-1937.312468 -1285.246290 1132.635198
-1937.381545 -1285.246290 1130.636391
-1937.450622 -1285.246290 1128.637584
-1937.519700 -1285.246290 1126.638778
-1937.588777 -1285.246290 1124.639971
-1937.657854 -1285.246290 1122.641164
-1937.726931 -1285.246290 1120.642357
-1937.796009 -1285.246290 1118.643551
-1937.865086 -1285.246290 1116.644744
-1937.934163 -1285.246290 1114.645937
-1938.003240 -1285.246290 1112.647130
-1938.072318 -1285.246290 1110.648324
-1938.141395 -1285.246290 1108.649517
-1938.210472 -1285.246290 1106.650710
-1938.279549 -1285.246290 1104.651904
-1938.348627 -1285.246290 1102.653097
-1938.417704 -1285.246290 1100.654290
-1938.486781 -1285.246290 1098.655483
-1938.555858 -1285.246290 1096.656677
-1938.624936 -1285.246290 1094.657870
-1938.694013 -1285.246290 1092.659063
-1938.763090 -1285.246290 1090.660256
-1938.832167 -1285.246290 1088.661450
-1938.901245 -1285.246290 1086.662643
-1938.970322 -1285.246290 1084.663836
-1939.039399 -1285.246290 1082.665030
-1939.108476 -1285.246290 1080.666223
-1939.177554 -1285.246290 1078.667416
-1939.246631 -1285.246290 1076.668609
-1939.315708 -1285.246290 1074.669803
-1939.384785 -1285.246290 1072.670996
-1939.453863 -1285.246290 1070.672189
-1939.522940 -1285.246290 1068.673382
-1939.592017 -1285.246290 1066.674576
-1939.661094 -1285.246290 1064.675769
-1939.730172 -1285.246290 1062.676962
-1939.799249 -1285.246290 1060.678156
-1939.868326 -1285.246290 1058.679349
-1939.937403 -1285.246290 1056.680542
-1940.006481 -1285.246290 1054.681735
-1940.075558 -1285.246290 1052.682929
-1940.144635 -1285.246290 1050.684122
-1940.213712 -1285.246290 1048.685315
-1940.282790 -1285.246290 1046.686508
-1940.351867 -1285.246290 1044.687702
-1940.420944 -1285.246290 1042.688895
-1940.490021 -1285.246290 1040.690088
-1940.559099 -1285.246290 1038.691282
-1940.628176 -1285.246290 1036.692475
-1940.697253 -1285.246290 1034.693668
-1940.766330 -1285.246290 1032.694861
-1940.835408 -1285.246290 1030.696055
-1940.904485 -1285.246290 1028.697248
-1940.973562 -1285.246290 1026.698441
-1941.042639 -1285.246290 1024.699634
-1941.111717 -1285.246290 1022.700828
-1941.180794 -1285.246290 1020.702021
-1941.249871 -1285.246290 1018.703214
-1941.318948 -1285.246290 1016.704408
-1941.388026 -1285.246290 1014.705601
-1941.457103 -1285.246290 1012.706794
-1941.526180 -1285.246290 1010.707987
-1941.595258 -1285.246290 1008.709181
-1941.664335 -1285.246290 1006.710374
-1941.733412 -1285.246290 1004.711567
-1941.802489 -1285.246290 1002.712760
-1941.871567 -1285.246290 1000.713954
-1941.940644 -1285.246290 998.715147
-1942.009721 -1285.246290 996.716340
-1942.078798 -1285.246290 994.717534
-1942.147876 -1285.246290 992.718727
-1942.216953 -1285.246290 990.719920
-1942.286030 -1285.246290 988.721113
-1942.355107 -1285.246290 986.722307
-1942.424185 -1285.246290 984.723500
-1942.493262 -1285.246290 982.724693
-1942.562339 -1285.246290 980.725886
-1942.631416 -1285.246290 978.727080
-1942.700494 -1285.246290 976.728273
-1942.769571 -1285.246290 974.729466
-1942.838648 -1285.246290 972.730660
-1942.907725 -1285.246290 970.731853
-1942.976803 -1285.246290 968.733046
-1943.045880 -1285.246290 966.734239
-1943.114957 -1285.246290 964.735433
-1943.184034 -1285.246290 962.736626
-1943.253112 -1285.246290 960.737819
-1943.322189 -1285.246290 958.739012
-1943.391266 -1285.246290 956.740206
-1943.460343 -1285.246290 954.741399
-1943.529421 -1285.246290 952.742592
-1943.598498 -1285.246290 950.743786
-1943.667575 -1285.246290 948.744979
-1943.736652 -1285.246290 946.746172
-1943.805730 -1285.246290 944.747365
-1943.874807 -1285.246290 942.748559
-1943.943884 -1285.246290 940.749752
-1944.012961 -1285.246290 938.750945
-1944.082039 -1285.246290 936.752138
-1944.151116 -1285.246290 934.753332
-1944.220193 -1285.246290 932.754525
-1944.289270 -1285.246290 930.755718
-1944.358348 -1285.246290 928.756912
-1944.427425 -1285.246290 926.758105
-1944.496502 -1285.246290 924.759298
-1944.565579 -1285.246290 922.760491
-1944.634657 -1285.246290 920.761685
-1944.703734 -1285.246290 918.762878
-1944.772811 -1285.246290 916.764071
-1944.841888 -1285.246290 914.765264
-1944.910966 -1285.246290 912.766458
-1944.980043 -1285.246290 910.767651
-1945.049120 -1285.246290 908.768844
-1945.118197 -1285.246290 906.770038
-1945.187275 -1285.246290 904.771231
-1945.256352 -1285.246290 902.772424
-1945.325429 -1285.246290 900.773617
-1945.394506 -1285.246290 898.774811
-1945.463584 -1285.246290 896.776004
-1945.532661 -1285.246290 894.777197
-1945.601738 -1285.246290 892.778390
-1945.670815 -1285.246290 890.779584
-1945.739893 -1285.246290 888.780777
-1945.808970 -1285.246290 886.781970
-1945.878047 -1285.246290 884.783164
-1945.947124 -1285.246290 882.784357
-1946.016202 -1285.246290 880.785550
-1946.085279 -1285.246290 878.786743
-1946.154356 -1285.246290 876.787937
-1946.223433 -1285.246290 874.789130
-1946.292511 -1285.246290 872.790323
-1946.361588 -1285.246290 870.791516
-1946.430665 -1285.246290 868.792710
-1946.499742 -1285.246290 866.793903
-1946.568820 -1285.246290 864.795096
-1946.637897 -1285.246290 862.796290
-1946.706974 -1285.246290 860.797483
-1946.776051 -1285.246290 858.798676
-1946.845129 -1285.246290 856.799869
-1946.914206 -1285.246290 854.801063
-1946.983283 -1285.246290 852.802256
-1947.052361 -1285.246290 850.803449
-1947.121438 -1285.246290 848.804642
-1947.190515 -1285.246290 846.805836
-1947.259592 -1285.246290 844.807029
-1947.328670 -1285.246290 842.808222
-1947.397747 -1285.246290 840.809416
-1947.466824 -1285.246290 838.810609
-1947.535901 -1285.246290 836.811802
-1947.604979 -1285.246290 834.812995
-1947.674056 -1285.246290 832.814189
-1947.743133 -1285.246290 830.815382
-1947.812210 -1285.246290 828.816575
-1947.881288 -1285.246290 826.817768
-1947.950365 -1285.246290 824.818962
-1948.019442 -1285.246290 822.820155
-1948.088519 -1285.246290 820.821348
-1948.157597 -1285.246290 818.822542
-1948.226674 -1285.246290 816.823735
-1948.295751 -1285.246290 814.824928
-1948.364828 -1285.246290 812.826121
-1948.433906 -1285.246290 810.827315
-1948.502983 -1285.246290 808.828508
-1948.572060 -1285.246290 806.829701
-1948.641137 -1285.246290 804.830894
-1948.710215 -1285.246290 802.832088
-1948.779292 -1285.246290 800.833281
-1948.848369 -1285.246290 798.834474
-1948.917446 -1285.246290 796.835668
-1948.986524 -1285.246290 794.836861
-1949.055601 -1285.246290 792.838054
-1949.124678 -1285.246290 790.839247
-1949.193755 -1285.246290 788.840441
-1949.262833 -1285.246290 786.841634
-1949.331910 -1285.246290 784.842827
-1949.400987 -1285.246290 782.844020
-1949.470064 -1285.246290 780.845214
-1949.539142 -1285.246290 778.846407
-1949.608219 -1285.246290 776.847600
-1949.677296 -1285.246290 774.848794
-1949.746373 -1285.246290 772.849987
-1949.815451 -1285.246290 770.851180
-1949.884528 -1285.246290 768.852373
-1949.953605 -1285.246290 766.853567
-1950.022682 -1285.246290 764.854760
-1950.091760 -1285.246290 762.855953
-1950.160837 -1285.246290 760.857146
-1950.229914 -1285.246290 758.858340
-1950.298991 -1285.246290 756.859533
-1950.368069 -1285.246290 754.860726
-1950.437146 -1285.246290 752.861920
-1950.506223 -1285.246290 750.863113
-1950.575300 -1285.246290 748.864306
-1950.644378 -1285.246290 746.865499
-1950.713455 -1285.246290 744.866693
-1950.782532 -1285.246290 742.867886
-1950.851609 -1285.246290 740.869079
-1950.920687 -1285.246290 738.870272
-1950.989764 -1285.246290 736.871466
-1951.058841 -1285.246290 734.872659
-1951.127918 -1285.246290 732.873852
-1951.196996 -1285.246290 730.875046
-1951.266073 -1285.246290 728.876239
-1951.335150 -1285.246290 726.877432
-1951.404227 -1285.246290 724.878625
-1951.473305 -1285.246290 722.879819
-1951.542382 -1285.246290 720.881012
-1951.611459 -1285.246290 718.882205
-1951.680536 -1285.246290 716.883398
-1951.749614 -1285.246290 714.884592
-1951.818691 -1285.246290 712.885785
-1951.887768 -1285.246290 710.886978
-1951.956845 -1285.246290 708.888172
-1952.025923 -1285.246290 706.889365
-1952.095000 -1285.246290 704.890558
-1952.164077 -1285.246290 702.891751
-1952.233155 -1285.246290 700.892945
-1952.302232 -1285.246290 698.894138
-1952.371309 -1285.246290 696.895331
-1952.440386 -1285.246290 694.896524
-1952.509464 -1285.246290 692.897718
-1952.578541 -1285.246290 690.898911
-1952.647618 -1285.246290 688.900104
-1952.716695 -1285.246290 686.901298
-1952.785773 -1285.246290 684.902491
-1952.854850 -1285.246290 682.903684
-1952.923927 -1285.246290 680.904877
-1952.993004 -1285.246290 678.906071
-1953.062082 -1285.246290 676.907264
-1953.131159 -1285.246290 674.908457
-1953.200236 -1285.246290 672.909650
-1953.269313 -1285.246290 670.910844
-1953.338391 -1285.246290 668.912037
-1953.407468 -1285.246290 666.913230
-1953.476545 -1285.246290 664.914424
-1953.545622 -1285.246290 662.915617
-1953.614700 -1285.246290 660.916810
-1953.683777 -1285.246290 658.918003
-1953.752854 -1285.246290 656.919197
-1953.821931 -1285.246290 654.920390
-1953.891009 -1285.246290 652.921583
-1953.960086 -1285.246290 650.922776
-1954.029163 -1285.246290 648.923970
-1954.098240 -1285.246290 646.925163
-1954.167318 -1285.246290 644.926356
-1954.236395 -1285.246290 642.927550
-1954.305472 -1285.246290 640.928743
-1954.374549 -1285.246290 638.929936
-1954.443627 -1285.246290 636.931129
-1954.512704 -1285.246290 634.932323
-1954.581781 -1285.246290 632.933516
-1954.650858 -1285.246290 630.934709
-1954.719936 -1285.246290 628.935902
-1954.789013 -1285.246290 626.937096
-1954.858090 -1285.246290 624.938289
-1954.927167 -1285.246290 622.939482
-1954.996245 -1285.246290 620.940676
-1955.065322 -1285.246290 618.941869
-1955.134399 -1285.246290 616.943062
-1955.203476 -1285.246290 614.944255
-1955.272554 -1285.246290 612.945449
-1955.341631 -1285.246290 610.946642
-1955.410708 -1285.246290 608.947835
-1955.479785 -1285.246290 606.949028
-1955.548863 -1285.246290 604.950222
-1955.617940 -1285.246290 602.951415
-1955.687017 -1285.246290 600.952608
-1955.756094 -1285.246290 598.953802
-1955.825172 -1285.246290 596.954995
-1955.894249 -1285.246290 594.956188
-1955.963326 -1285.246290 592.957381
-1956.032403 -1285.246290 590.958575
-1956.101481 -1285.246290 588.959768
-1956.170558 -1285.246290 586.960961
-1956.239635 -1285.246290 584.962154
-1956.308712 -1285.246290 582.963348
-1956.377790 -1285.246290 580.964541
-1956.446867 -1285.246290 578.965734
-1956.515944 -1285.246290 576.966928
-1956.585021 -1285.246290 574.968121
-1956.654099 -1285.246290 572.969314
-1956.723176 -1285.246290 570.970507
-1956.792253 -1285.246290 568.971701
-1956.861330 -1285.246290 566.972894
-1956.930408 -1285.246290 564.974087
-1956.999485 -1285.246290 562.975280
-1957.068562 -1285.246290 560.976474
-1957.137639 -1285.246290 558.977667
-1957.206717 -1285.246290 556.978860
-1957.275794 -1285.246290 554.980054
-1957.344871 -1285.246290 552.981247
-1957.413948 -1285.246290 550.982440
-1957.483026 -1285.246290 548.983633
-1957.552103 -1285.246290 546.984827
-1957.621180 -1285.246290 544.986020
-1957.690258 -1285.246290 542.987213
-1957.759335 -1285.246290 540.988406
-1957.828412 -1285.246290 538.989600
-1957.897489 -1285.246290 536.990793
-1957.966567 -1285.246290 534.991986
-1958.035644 -1285.246290 532.993180
-1958.104721 -1285.246290 530.994373
-1958.173798 -1285.246290 528.995566
-1958.242876 -1285.246290 526.996759
-1958.311953 -1285.246290 524.997953
-1958.381030 -1285.246290 522.999146
-1958.450107 -1285.246290 521.000339
-1958.519185 -1285.246290 519.001532
-1958.588262 -1285.246290 517.002726
-1958.657339 -1285.246290 515.003919
-1958.726416 -1285.246290 513.005112
-1958.795494 -1285.246290 511.006306
-1958.864571 -1285.246290 509.007499
-1958.933648 -1285.246290 507.008692
-1959.002725 -1285.246290 505.009885
-1959.071803 -1285.246290 503.011079
-1959.140880 -1285.246290 501.012272
-1959.209957 -1285.246290 499.013465
-1959.279034 -1285.246290 497.014658
-1959.348112 -1285.246290 495.015852
-1959.417189 -1285.246290 493.017045
-1959.486266 -1285.246290 491.018238
-1959.555343 -1285.246290 489.019432
-1959.624421 -1285.246290 487.020625
-1959.693498 -1285.246290 485.021818
-1959.762575 -1285.246290 483.023011
-1959.831652 -1285.246290 481.024205
-1959.900730 -1285.246290 479.025398
-1959.969807 -1285.246290 477.026591
-1960.038884 -1285.246290 475.027784
-1960.107961 -1285.246290 473.028978
-1960.177039 -1285.246290 471.030171
-1960.246116 -1285.246290 469.031364
-1960.315193 -1285.246290 467.032558
-1960.384270 -1285.246290 465.033751
-1960.453348 -1285.246290 463.034944
-1960.522425 -1285.246290 461.036137
-1960.591502 -1285.246290 459.037331
-1960.660579 -1285.246290 457.038524
-1960.729657 -1285.246290 455.039717
-1960.798734 -1285.246290 453.040910
-1960.867811 -1285.246290 451.042104
-1960.936888 -1285.246290 449.043297
-1961.005966 -1285.246290 447.044490
-1961.075043 -1285.246290 445.045684
-1961.144120 -1285.246290 443.046877
-1961.213197 -1285.246290 441.048070
-1961.282275 -1285.246290 439.049263
-1961.351352 -1285.246290 437.050457
-1961.420429 -1285.246290 435.051650
-1961.489506 -1285.246290 433.052843
-1961.558584 -1285.246290 431.054036
-1961.627661 -1285.246290 429.055230
-1961.696738 -1285.246290 427.056423
-1961.765815 -1285.246290 425.057616
-1961.834893 -1285.246290 423.058810
-1961.903970 -1285.246290 421.060003
-1961.973047 -1285.246290 419.061196
-1962.042124 -1285.246290 417.062389
-1962.111202 -1285.246290 415.063583
-1962.180279 -1285.246290 413.064776
-1962.249356 -1285.246290 411.065969
-1962.318433 -1285.246290 409.067162
-1962.387511 -1285.246290 407.068356
-1962.456588 -1285.246290 405.069549
-1962.525665 -1285.246290 403.070742
-1962.594742 -1285.246290 401.071936
-1962.663820 -1285.246290 399.073129
-1962.732897 -1285.246290 397.074322
-1962.801974 -1285.246290 395.075515
-1962.871051 -1285.246290 393.076709
-1962.940129 -1285.246290 391.077902
-1963.009206 -1285.246290 389.079095
-1963.078283 -1285.246290 387.080288
-1963.147361 -1285.246290 385.081482
-1963.216438 -1285.246290 383.082675
-1963.285515 -1285.246290 381.083868
-1963.354592 -1285.246290 379.085062
-1963.423670 -1285.246290 377.086255
-1963.492747 -1285.246290 375.087448
-1963.561824 -1285.246290 373.088641
-1963.630901 -1285.246290 371.089835
-1963.699979 -1285.246290 369.091028
-1963.769056 -1285.246290 367.092221
-1963.838133 -1285.246290 365.093414
-1963.907210 -1285.246290 363.094608
-1963.976288 -1285.246290 361.095801
-1964.045365 -1285.246290 359.096994
-1964.114442 -1285.246290 357.098188
-1964.183519 -1285.246290 355.099381
-1964.252597 -1285.246290 353.100574
-1964.321674 -1285.246290 351.101767
-1964.390751 -1285.246290 349.102961
-1964.459828 -1285.246290 347.104154
-1964.528906 -1285.246290 345.105347
-1964.597983 -1285.246290 343.106540
-1964.667060 -1285.246290 341.107734
-1964.736137 -1285.246290 339.108927
-1964.805215 -1285.246290 337.110120
-1964.874292 -1285.246290 335.111314
-1964.943369 -1285.246290 333.112507
-1965.012446 -1285.246290 331.113700
-1965.081524 -1285.246290 329.114893
-1965.150601 -1285.246290 327.116087
-1965.219678 -1285.246290 325.117280
-1965.288755 -1285.246290 323.118473
-1965.357833 -1285.246290 321.119666
-1965.426910 -1285.246290 319.120860
-1965.495987 -1285.246290 317.122053
-1965.565064 -1285.246290 315.123246
-1965.634142 -1285.246290 313.124440
-1965.703219 -1285.246290 311.125633
-1965.772296 -1285.246290 309.126826
-1965.841373 -1285.246290 307.128019
-1965.910451 -1285.246290 305.129213
-1965.979528 -1285.246290 303.130406
-1966.048605 -1285.246290 301.131599
-1966.117682 -1285.246290 299.132792
-1966.186760 -1285.246290 297.133986
-1966.255837 -1285.246290 295.135179
-1966.324914 -1285.246290 293.136372
-1966.393991 -1285.246290 291.137566
-1966.463069 -1285.246290 289.138759
-1966.532146 -1285.246290 287.139952
-1966.601223 -1285.246290 285.141145
-1966.670300 -1285.246290 283.142339
-1966.739378 -1285.246290 281.143532
-1966.808455 -1285.246290 279.144725
-1966.877532 -1285.246290 277.145918
-1966.946609 -1285.246290 275.147112
-1967.055371 -1285.246290 272.000000
-1967.055371 -1285.515680 270.018226
-1967.055371 -1285.785070 268.036452
-1967.055371 -1286.054460 266.054677
-1967.055371 -1286.323850 264.072903
-1967.055371 -1286.593240 262.091129
-1967.055371 -1286.862631 260.109355
-1967.055371 -1287.132021 258.127581
-1967.055371 -1287.401411 256.145806
-1967.055371 -1287.670801 254.164032
-1967.055371 -1287.940191 252.182258
-1967.055371 -1288.209581 250.200484
-1967.055371 -1288.478971 248.218710
-1967.055371 -1288.748361 246.236935
-1967.055371 -1289.017751 244.255161
-1967.055371 -1289.287142 242.273387
-1967.055371 -1289.556532 240.291613
-1967.055371 -1289.825922 238.309839
-1967.055371 -1290.095312 236.328064
-1967.055371 -1290.364702 234.346290
-1967.055371 -1290.634092 232.364516
-1967.055371 -1290.903482 230.382742
-1967.055371 -1291.172872 228.400968
-1967.055371 -1291.442263 226.419193
-1967.055371 -1291.711653 224.437419
-1967.055371 -1291.981043 222.455645
-1967.055371 -1292.250433 220.473871
-1967.055371 -1292.519823 218.492097
-1967.055371 -1292.789213 216.510323
-1967.055371 -1293.058603 214.528548
-1967.055371 -1293.327993 212.546774
-1967.055371 -1293.597384 210.565000
-1967.055371 -1293.866774 208.583226
-1967.055371 -1294.136164 206.601452
-1967.055371 -1294.405554 204.619677
-1967.055371 -1294.674944 202.637903
-1967.055371 -1294.944334 200.656129
-1967.055371 -1295.213724 198.674355
-1967.055371 -1295.483114 196.692581
-1967.055371 -1295.752504 194.710806
-1967.055371 -1296.021895 192.729032
-1967.055371 -1296.291285 190.747258
-1967.055371 -1296.560675 188.765484
-1967.055371 -1296.830065 186.783710
-1967.055371 -1297.099455 184.801935
-1967.055371 -1297.368845 182.820161
-1967.055371 -1297.638235 180.838387
-1967.055371 -1297.907625 178.856613
-1967.055371 -1298.177016 176.874839
-1967.055371 -1298.446406 174.893064
-1967.055371 -1298.715796 172.911290
-1967.055371 -1298.985186 170.929516
-1967.055371 -1299.254576 168.947742
-1967.055371 -1299.523966 166.965968
-1967.055371 -1299.793356 164.984193
-1967.055371 -1300.062746 163.002419
-1967.055371 -1300.332137 161.020645
-1967.055371 -1300.601527 159.038871
-1967.055371 -1300.870917 157.057097
-1967.055371 -1301.140307 155.075322
-1967.055371 -1301.409697 153.093548
-1967.055371 -1301.679087 151.111774
-1967.055371 -1301.948477 149.130000
-1967.055371 -1302.217867 147.148226
-1967.055371 -1302.487257 145.166451
-1967.055371 -1302.756648 143.184677
-1967.055371 -1303.026038 141.202903
-1967.055371 -1303.295428 139.221129
-1967.055371 -1303.564818 137.239355
-1967.055371 -1303.834208 135.257580
-1967.055371 -1304.103598 133.275806
-1967.055371 -1304.372988 131.294032
-1967.055371 -1304.642378 129.312258
-1967.055371 -1304.911769 127.330484
-1967.055371 -1305.181159 125.348710
-1967.055371 -1305.450549 123.366935
-1967.055371 -1305.719939 121.385161
-1967.055371 -1305.989329 119.403387
-1967.055371 -1306.258719 117.421613
-1967.055371 -1306.528109 115.439839
-1967.055371 -1306.797499 113.458064
-1967.055371 -1307.066890 111.476290
-1967.055371 -1307.336280 109.494516
-1967.055371 -1307.605670 107.512742
-1967.055371 -1307.875060 105.530968
-1967.055371 -1308.144450 103.549193
-1967.055371 -1308.413840 101.567419
-1967.055371 -1308.683230 99.585645
-1967.055371 -1308.952620 97.603871
-1967.055371 -1309.222010 95.622097
-1967.055371 -1309.491401 93.640322
-1967.055371 -1309.760791 91.658548
-1967.055371 -1310.030181 89.676774
-1967.055371 -1310.299571 87.695000
-1967.055371 -1310.568961 85.713226
-1967.055371 -1310.838351 83.731451
-1967.055371 -1311.107741 81.749677
-1967.055371 -1311.377131 79.767903
-1967.055371 -1311.646522 77.786129
-1967.055371 -1311.915912 75.804355
-1967.055371 -1312.185302 73.822580
-1967.055371 -1312.454692 71.840806
-1967.055371 -1312.724082 69.859032
-1967.055371 -1312.993472 67.877258
-1967.055371 -1313.262862 65.895484
-1967.055371 -1313.532252 63.913709
-1967.055371 -1313.801643 61.931935
-1967.055371 -1314.071033 59.950161
-1967.055371 -1314.340423 57.968387
-1967.055371 -1314.609813 55.986613
-1967.055371 -1314.879203 54.004838
-1967.055371 -1315.148593 52.023064
-1967.055371 -1315.417983 50.041290
-1967.055371 -1315.687373 48.059516
-1967.055371 -1315.956763 46.077742
-1967.055371 -1316.226154 44.095967
-1967.055371 -1316.495544 42.114193
-1967.055371 -1316.764934 40.132419
-1967.055371 -1317.034324 38.150645
-1967.055371 -1317.303714 36.168871
-1967.055371 -1317.573104 34.187097
-1967.055371 -1317.842494 32.205322
-1967.055371 -1318.111884 30.223548
-1967.055371 -1318.381275 28.241774
-1967.055371 -1318.650665 26.260000
-1967.055371 -1318.920055 24.278226
-1967.055371 -1319.189445 22.296451
-1967.055371 -1319.458835 20.314677
-1967.055371 -1319.728225 18.332903
-1967.055371 -1319.997615 16.351129
-1967.055371 -1320.267005 14.369355
-1967.055371 -1320.536396 12.387580
-1967.055371 -1320.805786 10.405806
-1967.055371 -1321.075176 8.424032
-1967.055371 -1321.344566 6.442258
-1967.055371 -1321.613956 4.460484
-1967.055371 -1321.883346 2.478709
-1967.055371 -1322.152736 0.496935
-1967.055371 -1322.422126 -1.484839
-1967.055371 -1322.691517 -3.466613
-1967.055371 -1322.960907 -5.448387
-1967.055371 -1323.230297 -7.430162
-1967.055371 -1323.499687 -9.411936
-1967.055371 -1323.769077 -11.393710
-1967.055371 -1324.038467 -13.375484
-1967.055371 -1324.307857 -15.357258
-1967.055371 -1324.577247 -17.339033
-1967.055371 -1324.846637 -19.320807
-1967.055371 -1325.116028 -21.302581
-1967.055371 -1325.385418 -23.284355
-1967.055371 -1325.654808 -25.266129
-1967.055371 -1325.924198 -27.247904
-1967.055371 -1326.193588 -29.229678
-1967.055371 -1326.462978 -31.211452
-1967.055371 -1326.732368 -33.193226
-1967.055371 -1327.001758 -35.175000
-1967.055371 -1327.271149 -37.156775
-1967.055371 -1327.540539 -39.138549
-1967.055371 -1327.809929 -41.120323
-1967.055371 -1328.079319 -43.102097
-1967.055371 -1328.348709 -45.083871
-1967.055371 -1328.618099 -47.065646
-1967.055371 -1328.887489 -49.047420
-1967.055371 -1329.156879 -51.029194
-1967.055371 -1329.426270 -53.010968
-1967.055371 -1329.695660 -54.992742
-1967.055371 -1329.965050 -56.974517
-1967.055371 -1330.234440 -58.956291
-1967.055371 -1330.503830 -60.938065
-1967.055371 -1330.773220 -62.919839
-1967.055371 -1331.042610 -64.901613
-1967.055371 -1331.312000 -66.883387
-1967.055371 -1331.581390 -68.865162
-1967.055371 -1331.850781 -70.846936
-1967.055371 -1332.120171 -72.828710
-1967.055371 -1332.389561 -74.810484
-1967.055371 -1332.658951 -76.792258
-1967.055371 -1332.928341 -78.774033
-1967.055371 -1333.197731 -80.755807
-1967.055371 -1333.467121 -82.737581
-1967.055371 -1333.736511 -84.719355
-1967.055371 -1334.005902 -86.701129
-1967.055371 -1334.275292 -88.682904
-1967.055371 -1334.544682 -90.664678
-1967.055371 -1334.814072 -92.646452
-1967.055371 -1335.083462 -94.628226
-1967.055371 -1335.352852 -96.610000
-1967.055371 -1335.622242 -98.591775
-1967.055371 -1335.891632 -100.573549
-1967.055371 -1336.161023 -102.555323
-1967.055371 -1336.430413 -104.537097
-1967.055371 -1336.699803 -106.518871
-1967.055371 -1336.969193 -108.500646
-1967.055371 -1337.238583 -110.482420
-1967.055371 -1337.507973 -112.464194
-1967.055371 -1337.777363 -114.445968
-1967.055371 -1338.046753 -116.427742
-1967.055371 -1338.316143 -118.409517
-1967.055371 -1338.585534 -120.391291
-1967.055371 -1338.854924 -122.373065
-1967.055371 -1339.124314 -124.354839
-1967.055371 -1339.393704 -126.336613
-1967.055371 -1339.663094 -128.318388
-1967.055371 -1339.932484 -130.300162
-1967.055371 -1340.201874 -132.281936
-1967.055371 -1340.471264 -134.263710
-1967.055371 -1340.740655 -136.245484
-1967.055371 -1341.010045 -138.227259
-1967.055371 -1341.279435 -140.209033
-1967.055371 -1341.548825 -142.190807
-1967.055371 -1341.818215 -144.172581
-1967.055371 -1342.087605 -146.154355
-1967.055371 -1342.356995 -148.136130
-1967.055371 -1342.626385 -150.117904
-1967.055371 -1342.895776 -152.099678
-1967.055371 -1343.165166 -154.081452
-1967.055371 -1343.434556 -156.063226
-1967.055371 -1343.703946 -158.045000
-1967.055371 -1343.973336 -160.026775
-1967.055371 -1344.242726 -162.008549
-1967.055371 -1344.512116 -163.990323
-1967.055371 -1344.781506 -165.972097
-1967.055371 -1345.050896 -167.953871
-1967.055371 -1345.320287 -169.935646
-1967.055371 -1345.589677 -171.917420
-1967.055371 -1345.859067 -173.899194
-1967.055371 -1346.128457 -175.880968
-1967.055371 -1346.397847 -177.862742
-1967.055371 -1346.667237 -179.844517
-1967.055371 -1346.936627 -181.826291
-1967.055371 -1347.206017 -183.808065
-1967.055371 -1347.475408 -185.789839
-1967.055371 -1347.744798 -187.771613
-1967.055371 -1348.014188 -189.753388
-1967.055371 -1348.283578 -191.735162
-1967.055371 -1348.552968 -193.716936
-1967.055371 -1348.822358 -195.698710
-1967.055371 -1349.091748 -197.680484
-1967.055371 -1349.361138 -199.662259
-1967.055371 -1349.630529 -201.644033
-1967.055371 -1349.899919 -203.625807
-1967.055371 -1350.169309 -205.607581
-1967.055371 -1350.438699 -207.589355
-1967.055371 -1350.708089 -209.571130
-1967.055371 -1350.977479 -211.552904
-1967.055371 -1351.246869 -213.534678
-1967.055371 -1351.516259 -215.516452
-1967.055371 -1351.785649 -217.498226
-1967.055371 -1352.055040 -219.480001
-1967.055371 -1352.324430 -221.461775
-1967.055371 -1352.593820 -223.443549
-1967.055371 -1352.863210 -225.425323
-1967.055371 -1353.132600 -227.407097
-1967.055371 -1353.401990 -229.388872
-1967.055371 -1353.671380 -231.370646
-1967.055371 -1353.940770 -233.352420
-1967.055371 -1354.210161 -235.334194
-1967.055371 -1354.479551 -237.315968
-1967.055371 -1354.748941 -239.297743
-1967.055371 -1355.018331 -241.279517
-1967.055371 -1355.287721 -243.261291
-1967.055371 -1355.557111 -245.243065
-1967.055371 -1355.826501 -247.224839
-1967.055371 -1356.095891 -249.206613
-1967.055371 -1356.365282 -251.188388
-1967.055371 -1356.634672 -253.170162
-1967.055371 -1356.904062 -255.151936
-1967.055371 -1357.173452 -257.133710
-1967.055371 -1357.442842 -259.115484
-1967.055371 -1357.712232 -261.097259
-1967.055371 -1357.981622 -263.079033
-1967.055371 -1358.251012 -265.060807
-1967.055371 -1358.520402 -267.042581
-1967.055371 -1358.789793 -269.024355
-1967.055371 -1359.059183 -271.006130
-1967.055371 -1359.328573 -272.987904
-1967.055371 -1359.597963 -274.969678
-1967.055371 -1359.867353 -276.951452
-1967.055371 -1360.136743 -278.933226
-1967.055371 -1360.406133 -280.915001
-1967.055371 -1360.675523 -282.896775
-1967.055371 -1360.944914 -284.878549
-1967.055371 -1361.214304 -286.860323
-1967.055371 -1361.483694 -288.842097
-1967.055371 -1361.753084 -290.823872
-1967.055371 -1362.022474 -292.805646
-1967.055371 -1362.291864 -294.787420
-1967.055371 -1362.561254 -296.769194
-1967.055371 -1362.830644 -298.750968
-1967.055371 -1363.100035 -300.732743
-1967.055371 -1363.369425 -302.714517
-1967.055371 -1363.638815 -304.696291
-1967.055371 -1363.908205 -306.678065
-1967.055371 -1364.177595 -308.659839
-1967.055371 -1364.446985 -310.641614
-1967.055371 -1364.716375 -312.623388
-1967.055371 -1364.985765 -314.605162
-1967.055371 -1365.255155 -316.586936
-1967.055371 -1365.524546 -318.568710
-1967.055371 -1365.793936 -320.550485
-1967.055371 -1366.063326 -322.532259
-1967.055371 -1366.332716 -324.514033
-1967.055371 -1366.602106 -326.495807
-1967.055371 -1366.871496 -328.477581
-1967.055371 -1367.140886 -330.459356
-1967.055371 -1367.410276 -332.441130
-1967.055371 -1367.679667 -334.422904
-1967.055371 -1367.949057 -336.404678
-1967.055371 -1368.218447 -338.386452
-1967.055371 -1368.487837 -340.368227
-1967.055371 -1368.757227 -342.350001
-1967.055371 -1369.026617 -344.331775
-1967.055371 -1369.296007 -346.313549
-1967.055371 -1369.565397 -348.295323
-1967.055371 -1369.834788 -350.277097
-1967.055371 -1370.104178 -352.258872
-1967.055371 -1370.373568 -354.240646
-1967.055371 -1370.642958 -356.222420
-1967.055371 -1370.912348 -358.204194
-1967.055371 -1371.181738 -360.185968
-1967.055371 -1371.451128 -362.167743
-1967.055371 -1371.720518 -364.149517
-1967.055371 -1371.989909 -366.131291
-1967.055371 -1372.259299 -368.113065
-1967.055371 -1372.528689 -370.094839
-1967.055371 -1372.798079 -372.076614
-1967.055371 -1373.067469 -374.058388
-1967.055371 -1373.336859 -376.040162
-1967.055371 -1373.606249 -378.021936
-1967.055371 -1373.875639 -380.003710
-1967.055371 -1374.145029 -381.985485
-1967.055371 -1374.414420 -383.967259
-1967.055371 -1374.683810 -385.949033
-1967.055371 -1374.953200 -387.930807
-1967.055371 -1375.222590 -389.912581
-1967.055371 -1375.491980 -391.894356
-1967.055371 -1375.761370 -393.876130
-1967.055371 -1376.030760 -395.857904
-1967.055371 -1376.300150 -397.839678
-1967.055371 -1376.569541 -399.821452
-1967.055371 -1376.838931 -401.803227
-1967.055371 -1377.108321 -403.785001
-1967.055371 -1377.377711 -405.766775
-1967.055371 -1377.647101 -407.748549
-1967.055371 -1377.916491 -409.730323
-1967.055371 -1378.185881 -411.712098
-1967.055371 -1378.455271 -413.693872
-1967.055371 -1378.724662 -415.675646
-1967.055371 -1378.994052 -417.657420
-1967.055371 -1379.263442 -419.639194
-1967.055371 -1379.532832 -421.620969
-1967.055371 -1379.802222 -423.602743
-1967.055371 -1380.071612 -425.584517
-1967.055371 -1380.341002 -427.566291
-1967.055371 -1380.610392 -429.548065
-1967.055371 -1380.879782 -431.529840
-1967.055371 -1381.149173 -433.511614
-1967.055371 -1381.418563 -435.493388
-1967.055371 -1381.687953 -437.475162
-1967.055371 -1381.957343 -439.456936
-1967.055371 -1382.226733 -441.438710
-1967.055371 -1382.496123 -443.420485
-1967.055371 -1382.765513 -445.402259
-1967.055371 -1383.034903 -447.384033
-1967.055371 -1383.304294 -449.365807
-1967.055371 -1383.573684 -451.347581
-1967.055371 -1383.843074 -453.329356
-1967.055371 -1384.112464 -455.311130
-1967.055371 -1384.381854 -457.292904
-1967.055371 -1384.651244 -459.274678
-1967.055371 -1384.920634 -461.256452
-1967.055371 -1385.190024 -463.238227
-1967.055371 -1385.459415 -465.220001
-1967.055371 -1385.728805 -467.201775
-1967.055371 -1385.998195 -469.183549
-1967.055371 -1386.267585 -471.165323
-1967.055371 -1386.536975 -473.147098
-1967.055371 -1386.806365 -475.128872
-1967.055371 -1387.075755 -477.110646
-1967.055371 -1387.345145 -479.092420
-1967.055371 -1387.614535 -481.074194
-1967.055371 -1387.883926 -483.055969
-1967.055371 -1388.153316 -485.037743
-1967.055371 -1388.422706 -487.019517
-1967.055371 -1388.692096 -489.001291
-1967.055371 -1388.961486 -490.983065
-1967.055371 -1389.230876 -492.964840
-1967.055371 -1389.500266 -494.946614
-1967.055371 -1389.769656 -496.928388
-1967.055371 -1390.039047 -498.910162
-1967.055371 -1390.308437 -500.891936
-1967.055371 -1390.577827 -502.873711
-1967.055371 -1390.847217 -504.855485
-1967.055371 -1391.116607 -506.837259
-1967.055371 -1391.385997 -508.819033
-1967.055371 -1391.655387 -510.800807
-1967.055371 -1391.924777 -512.782582
-1967.055371 -1392.194168 -514.764356
-1967.055371 -1392.463558 -516.746130
-1967.055371 -1392.732948 -518.727904
-1967.055371 -1393.002338 -520.709678
-1967.055371 -1393.271728 -522.691453
-1967.055371 -1393.541118 -524.673227
-1967.055371 -1393.810508 -526.655001
-1967.055371 -1394.079898 -528.636775
-1967.055371 -1394.349288 -530.618549
-1967.055371 -1394.618679 -532.600323
-1967.055371 -1394.888069 -534.582098
-1967.055371 -1395.157459 -536.563872
-1967.055371 -1395.426849 -538.545646
-1967.055371 -1395.696239 -540.527420
-1967.055371 -1395.965629 -542.509194
-1967.055371 -1396.235019 -544.490969
-1967.055371 -1396.504409 -546.472743
-1967.055371 -1396.773800 -548.454517
-1967.055371 -1397.043190 -550.436291
-1967.055371 -1397.312580 -552.418065
-1967.055371 -1397.581970 -554.399840
-1967.055371 -1397.851360 -556.381614
-1967.055371 -1398.120750 -558.363388
-1967.055371 -1398.390140 -560.345162
-1967.055371 -1398.659530 -562.326936
-1967.055371 -1398.928921 -564.308711
-1967.055371 -1399.198311 -566.290485
-1967.055371 -1399.467701 -568.272259
-1967.055371 -1399.737091 -570.254033
-1967.055371 -1400.006481 -572.235807
-1967.055371 -1400.275871 -574.217582
-1967.055371 -1400.545261 -576.199356
-1967.055371 -1400.814651 -578.181130
-1967.055371 -1401.084041 -580.162904
-1967.055371 -1401.353432 -582.144678
-1967.055371 -1401.622822 -584.126453
-1967.055371 -1401.892212 -586.108227
-1967.055371 -1402.161602 -588.090001
-1967.055371 -1402.430992 -590.071775
-1967.055371 -1402.700382 -592.053549
